# .PCD v0.7 - Point Cloud Data file format
VERSION 0.7
FIELDS x y z
SIZE 4 4 4
TYPE F F F
COUNT 1 1 1
WIDTH 186
HEIGHT 1
VIEWPOINT 0 0 0 1 0 0 0
POINTS 186
DATA ascii
1.1474037 -1.114 0.33360562
1.1358589 -1.1569999 0.32641399
1.1470404 -1.12 0.31458279
1.1288002 -1.156 0.31188226
1.1411221 -1.118 0.30197427
1.1248767 -1.155 0.2991305
1.1415465 -1.11 0.2939232
1.0762784 -1.3940001 0.27855834
1.1262985 -1.148 0.29100779
1.0758435 -1.4630001 0.25853804
1.0772707 -1.399 0.26445106
1.0749124 -1.466 0.24557146
1.0746312 -1.396 0.25561741
1.0686413 -1.4579999 0.24201147
1.0803293 -1.393 0.25119793
1.0619458 -1.437 0.24650255
2.1751726 1.823 0.22371323
2.2543941 1.799 0.21000406
1.214178 -1.1160001 0.56541848
1.1979326 -1.155 0.56257468
1.2051243 -1.127 0.55102998
1.3178182 -1.194 0.50082976
1.1937944 -1.171 0.54683065
1.1942904 -1.1339999 0.53977698
1.2643865 -1.153 0.51068187
1.1821063 -1.176 0.53764415
1.1937175 -1.14 0.53179753
1.1446284 -1.403 0.53231466
1.1845256 -1.1849999 0.52944982
1.1379275 -1.414 0.52277011
1.1447663 -1.3710001 0.52027386
1.128521 -1.419 0.51743007
1.1455489 -1.3789999 0.51721001
1.1274519 -1.4220001 0.51650429
2.1874652 2.0280001 0.32509318
2.2208416 2.0039999 0.41292828
2.2336967 2.0550001 0.49421632
2.2762649 2.03 0.58439916
2.2055008 1.788 0.35287279
2.2162895 1.823 0.43330666
2.2386627 1.758 0.43771556
2.2454615 1.79 0.5184359
2.2866743 1.7589999 0.6037032
1.2592846 -1.127 0.77472538
1.2808648 -1.127 0.75412691
1.24418 -1.168 0.77380484
1.2470237 -1.15 0.75755942
1.2478726 -1.132 0.74145728
1.2718056 -1.126 0.7257027
1.2339085 -1.1720001 0.74246001
1.2381079 -1.148 0.73113012
1.19017 -1.423 0.76164186
1.2051979 -1.409 0.74752933
1.181188 -1.448 0.74825078
1.1875254 -1.424 0.73877257
1.2000623 -1.398 0.73185688
1.1771929 -1.437 0.7345016
-1.9163711 -0.69800001 0.879439
-1.9064926 -0.70099998 1.0030489
-1.9138538 -0.67400002 0.94242042
-1.9029063 -0.67699999 1.0669562
-1.9377921 -0.634 0.9441393
-1.9258473 -0.63300002 1.0686035
-1.9621813 -0.57099998 0.88373101
-1.9493105 -0.56400001 1.0071261
2.2685826 2.0550001 0.61703318
2.2953351 2.0309999 0.71035677
2.2675185 1.793 0.63014305
2.380868 1.798 0.61699104
2.2960513 1.767 0.72033107
-1.896789 -0.70599997 1.04045
-1.9059544 -0.69300002 1.1082807
-1.9047685 -0.66100001 1.0410229
-1.913125 -0.68000001 1.1759681
-1.9249057 -0.64999998 1.1096414
-1.9257145 -0.62099999 1.042527
-1.9326966 -0.57599998 1.0430284
-1.9013864 -0.73699999 1.1300093
-1.9124751 -0.72600001 1.1989806
-1.9004606 -0.68699998 1.1289402
-1.9005775 -0.67199999 1.1971236
-1.9075142 -0.64200002 1.1284441
-1.9095807 -0.59500003 1.1275899
-1.9755545 -0.51899999 1.1303221
-1.9356571 -0.46200001 1.1274573
-1.9130428 -0.73799998 1.2050368
-1.9106445 -0.70099998 1.1406997
-1.9081988 -0.685 1.2026838
-1.9118094 -0.62099999 1.2641001
-1.9188367 -0.60299999 1.3337823
-1.9208579 -0.574 1.2637473
-2.0092714 -0.54799998 1.2751087
-1.9607551 -0.48500001 1.2666122
-1.9046863 -0.71399999 1.0700917
-1.9026334 -0.787 1.2243408
-1.9180615 -0.70999998 1.1211809
-1.9098166 -0.66799998 1.068455
-1.9086392 -0.69599998 1.1686279
-1.9241894 -0.662 1.1196157
-1.924993 -0.62400001 1.066537
-1.9086897 -0.68300003 1.2237731
-1.9126289 -0.64700001 1.1689143
-1.9281286 -0.57800001 1.064757
-1.9017076 -0.62800002 1.2232717
-1.9067159 -0.59500003 1.1674871
-1.918664 -0.583 1.2244893
2.2680464 2.046 0.7073034
2.2854428 2.0409999 0.74014175
2.3030546 2.029 0.77597243
2.2747419 1.791 0.70281231
2.2924964 1.7819999 0.74063784
1.2387631 -1.1210001 0.76817834
1.2316377 -1.165 0.76668483
1.2265073 -1.214 0.76504809
1.1838484 -1.411 0.81322712
1.1860371 -1.4069999 0.75993347
1.1630245 -1.4450001 0.76058334
-1.9055984 -0.667 0.91776586
-1.8911783 -0.71399999 0.99292606
-1.9129227 -0.671 0.95538706
-1.9368769 -0.62900001 0.91499895
-1.9111269 -0.671 0.99435848
-1.904129 -0.66500002 1.0359641
-1.9151167 -0.62199998 0.994645
-1.9491168 -0.58499998 0.95397568
-1.9782571 -0.54500002 0.95306039
-1.967198 -0.53799999 0.995377
-1.9050149 -0.47799999 0.95381665
-1.9250909 -0.47799999 0.99536121
2.199548 2.0420001 0.43751651
2.2027602 2.0539999 0.45432961
2.2150929 2.0669999 0.47249296
2.2111642 1.7920001 0.44570556
2.2152467 2.0599999 0.50255919
2.3651166 1.831 0.41159168
2.2127399 1.798 0.46764904
2.3383396 1.813 0.44359168
2.220515 1.8 0.49215513
2.3502476 1.816 0.4698061
2.2259426 1.7920001 0.52585298
2.3964264 1.837 0.49857259
1.2264253 -1.143 0.73597932
1.2100208 -1.135 0.68903369
1.2016674 -1.137 0.64251244
1.1923167 -1.1339999 0.5960629
1.1790394 -1.403 0.71832782
1.1664813 -1.387 0.66910082
1.1568809 -1.446 0.7169112
1.1531566 -1.438 0.66504472
1.1445884 -1.429 0.61553127
1.1361634 -1.414 0.56801265
-3.5200911 1.679 0.25670028
-3.365274 1.88 0.24859126
-3.2888963 1.9299999 0.25112745
-3.2023294 1.973 0.25593981
-2.5850518 3.036 0.23768266
-2.3394687 2.6789999 0.22305612
-2.521431 3.098 0.23010662
-2.2662981 2.7119999 0.22281493
-2.4261734 3.1210001 0.23028459
-2.1961913 2.7460001 0.22179116
-2.3308444 3.141 0.23146003
-2.1404784 2.7969999 0.21578547
-2.2734234 3.21 0.22132143
-2.0787091 2.842 0.21034752
-2.1873577 3.24 0.21915168
-2.0138044 2.882 0.20668957
-2.1085606 3.279 0.2134936
-2.0327556 3.3210001 0.20805037
-1.9188999 3.2980001 0.2159161
1.1784642 -1.117 0.5148465
1.1574306 -1.115 0.47324607
1.1592265 -1.154 0.51221752
1.1393895 -1.117 0.43143082
1.1498758 -1.161 0.46576798
1.1310362 -1.124 0.38490966
1.1386017 -1.169 0.42045909
1.1214862 -1.165 0.37757477
1.1033545 -1.4069999 0.47412133
1.0949295 -1.405 0.42660272
1.0807348 -1.398 0.38250607
1.0694609 -1.3890001 0.33719718
1.0596244 -1.441 0.32587263
1.0967075 -1.1059999 0.22796524
1.0995723 -1.1339999 0.26786253
1.0850195 -1.147 0.21877876
